ply
format ascii 1.0
element vertex 1227
property float x
property float y
property float z
property uchar red
property uchar green
property uchar blue
end_header
0.460674 -0.258427 -1.725843 47 46 36
0.466292 -0.258427 -1.725843 38 38 28
0.471910 -0.258427 -1.725843 35 37 26
0.477528 -0.258427 -1.725843 32 36 24
0.483146 -0.258427 -1.725843 40 40 31
0.488764 -0.258427 -1.725843 26 32 21
0.494382 -0.258427 -1.725843 8 27 13
0.500000 -0.258427 -1.725843 8 30 13
0.505618 -0.258427 -1.725843 8 31 13
0.511236 -0.258427 -1.725843 8 31 11
0.513967 -0.256983 -1.716201 9 32 15
0.519553 -0.256983 -1.716201 8 33 13
0.525140 -0.256983 -1.716201 9 35 15
0.530726 -0.256983 -1.716201 8 36 13
0.536313 -0.256983 -1.716201 10 36 14
0.541899 -0.256983 -1.716201 7 37 13
0.550562 -0.258427 -1.725843 10 42 17
0.556180 -0.258427 -1.725843 9 44 12
0.561798 -0.258427 -1.725843 16 61 21
0.567416 -0.258427 -1.725843 28 74 31
0.569832 -0.256983 -1.716201 36 85 37
0.575419 -0.256983 -1.716201 33 90 33
0.581006 -0.256983 -1.716201 31 88 37
0.586592 -0.256983 -1.716201 35 85 38
0.592179 -0.256983 -1.716201 29 76 30
0.597765 -0.256983 -1.716201 24 67 21
0.603352 -0.256983 -1.716201 36 75 34
0.608939 -0.256983 -1.716201 31 74 29
0.614525 -0.256983 -1.716201 42 89 39
0.623595 -0.258427 -1.725843 65 112 65
0.629214 -0.258427 -1.725843 29 77 37
0.634831 -0.258427 -1.725843 10 48 14
0.636872 -0.256983 -1.716201 10 43 17
0.642458 -0.256983 -1.716201 9 36 14
0.648045 -0.256983 -1.716201 6 33 13
0.653631 -0.256983 -1.716201 7 32 13
0.659218 -0.256983 -1.716201 7 29 14
0.664804 -0.256983 -1.716201 6 26 10
0.670391 -0.256983 -1.716201 7 27 12
0.675978 -0.256983 -1.716201 5 25 10
0.681564 -0.256983 -1.716201 6 25 12
0.687151 -0.256983 -1.716201 6 20 11
0.692737 -0.256983 -1.716201 5 18 10
0.702247 -0.258427 -1.725843 5 17 10
0.707865 -0.258427 -1.725843 8 22 12
0.713483 -0.258427 -1.725843 20 31 18
0.719101 -0.258427 -1.725843 34 37 25
0.724719 -0.258427 -1.725843 30 32 22
0.730337 -0.258427 -1.725843 33 35 26
0.731844 -0.256983 -1.716201 30 34 24
0.737430 -0.256983 -1.716201 31 35 24
0.743017 -0.256983 -1.716201 31 34 23
0.748603 -0.256983 -1.716201 34 35 25
0.754190 -0.256983 -1.716201 32 33 21
0.759777 -0.256983 -1.716201 36 37 27
0.765363 -0.256983 -1.716201 43 39 28
0.770950 -0.256983 -1.716201 48 46 34
0.776536 -0.256983 -1.716201 51 46 33
0.786517 -0.258427 -1.725843 54 51 38
0.787709 -0.256983 -1.716201 54 52 36
0.793296 -0.256983 -1.716201 58 55 43
0.798883 -0.256983 -1.716201 58 54 41
0.804469 -0.256983 -1.716201 54 55 41
0.810056 -0.256983 -1.716201 59 57 40
0.815642 -0.256983 -1.716201 65 62 48
0.821229 -0.256983 -1.716201 62 58 45
1.013699 -0.315068 -2.104110 60 57 45
1.020548 -0.315068 -2.104110 55 52 37
1.027397 -0.315068 -2.104110 54 55 41
1.034247 -0.315068 -2.104110 60 57 43
1.041096 -0.315068 -2.104110 61 59 46
1.047945 -0.315068 -2.104110 63 59 46
1.054795 -0.315068 -2.104110 66 62 48
1.061644 -0.315068 -2.104110 64 60 44
1.061224 -0.312925 -2.089796 65 63 48
1.060811 -0.310811 -2.075676 63 61 45
1.067568 -0.310811 -2.075676 68 64 49
1.081633 -0.312925 -2.089796 66 60 45
1.088435 -0.312925 -2.089796 69 63 48
1.095238 -0.312925 -2.089796 72 69 51
1.102041 -0.312925 -2.089796 84 80 60
1.108844 -0.312925 -2.089796 96 89 70
1.115646 -0.312925 -2.089796 108 100 83
1.114865 -0.310811 -2.075676 118 107 87
1.121622 -0.310811 -2.075676 126 115 95
1.128378 -0.310811 -2.075676 129 116 98
1.135135 -0.310811 -2.075676 129 116 100
1.141892 -0.310811 -2.075676 130 118 100
1.148649 -0.310811 -2.075676 131 118 99
1.155405 -0.310811 -2.075676 133 118 97
1.162162 -0.310811 -2.075676 133 120 102
1.168919 -0.310811 -2.075676 131 119 101
1.175676 -0.310811 -2.075676 132 119 104
1.182432 -0.310811 -2.075676 131 118 102
-1.333333 -0.326389 -2.133333 27 26 22
-2.010526 -0.494737 -3.233684 13 23 18
-2.000000 -0.494737 -3.233684 10 18 15
-1.733945 -0.431193 -2.818349 11 22 17
-1.724771 -0.431193 -2.818349 11 21 16
-1.684685 -0.423423 -2.767568 11 21 17
-1.576271 -0.398305 -2.603390 13 23 18
-1.491935 -0.379032 -2.477419 13 24 18
-1.472000 -0.376000 -2.457600 15 25 18
-1.418605 -0.364341 -2.381395 16 27 21
-1.300000 -0.335714 -2.194286 17 28 24
-1.283688 -0.333333 -2.178724 20 29 24
-1.267606 -0.330986 -2.163380 22 30 28
-1.251748 -0.328671 -2.148252 23 32 27
-1.219178 -0.321918 -2.104110 25 35 31
-1.212329 -0.321918 -2.104110 25 34 29
-1.205480 -0.321918 -2.104110 27 40 33
-1.198630 -0.321918 -2.104110 27 39 33
-1.191781 -0.321918 -2.104110 31 41 35
-1.184932 -0.321918 -2.104110 28 36 29
-1.178082 -0.321918 -2.104110 24 37 26
-1.171233 -0.321918 -2.104110 23 34 25
-1.164384 -0.321918 -2.104110 25 34 26
-1.157534 -0.321918 -2.104110 22 31 21
-1.150685 -0.321918 -2.104110 20 29 22
-1.143836 -0.321918 -2.104110 15 22 17
-1.136986 -0.321918 -2.104110 15 23 18
-1.130137 -0.321918 -2.104110 12 20 14
-1.123288 -0.321918 -2.104110 12 20 17
-1.116438 -0.321918 -2.104110 11 20 15
-1.109589 -0.321918 -2.104110 12 21 16
-1.102740 -0.321918 -2.104110 12 22 15
-1.095890 -0.321918 -2.104110 14 27 19
-1.089041 -0.321918 -2.104110 15 30 19
-1.082192 -0.321918 -2.104110 17 31 20
-1.075342 -0.321918 -2.104110 20 33 21
-1.068493 -0.321918 -2.104110 23 34 24
-1.061644 -0.321918 -2.104110 22 32 21
-1.054795 -0.321918 -2.104110 21 32 23
-1.047945 -0.321918 -2.104110 19 31 21
-1.041096 -0.321918 -2.104110 21 35 24
-1.034247 -0.321918 -2.104110 21 35 22
-1.027397 -0.321918 -2.104110 22 34 24
-1.020548 -0.321918 -2.104110 21 33 21
-1.013699 -0.321918 -2.104110 22 36 26
-1.006849 -0.321918 -2.104110 21 32 22
-1.000000 -0.321918 -2.104110 22 34 24
-0.993151 -0.321918 -2.104110 20 32 20
-0.986301 -0.321918 -2.104110 22 36 24
-0.979452 -0.321918 -2.104110 22 34 23
-0.972603 -0.321918 -2.104110 23 34 23
-0.965753 -0.321918 -2.104110 21 34 21
-0.958904 -0.321918 -2.104110 19 33 21
-0.952055 -0.321918 -2.104110 19 33 19
-0.945205 -0.321918 -2.104110 17 33 21
-0.938356 -0.321918 -2.104110 16 31 18
-0.931507 -0.321918 -2.104110 17 32 18
-0.924658 -0.321918 -2.104110 16 32 18
-0.917808 -0.321918 -2.104110 18 32 20
-0.910959 -0.321918 -2.104110 17 31 19
-0.904110 -0.321918 -2.104110 17 31 20
-0.897260 -0.321918 -2.104110 16 33 18
-0.890411 -0.321918 -2.104110 16 33 19
-0.883562 -0.321918 -2.104110 15 30 18
-0.876712 -0.321918 -2.104110 17 33 21
-0.869863 -0.321918 -2.104110 16 32 17
-0.863014 -0.321918 -2.104110 17 32 18
-0.856164 -0.321918 -2.104110 15 29 17
-0.849315 -0.321918 -2.104110 15 33 19
-0.842466 -0.321918 -2.104110 15 31 15
-0.835616 -0.321918 -2.104110 15 32 19
-0.828767 -0.321918 -2.104110 14 29 16
-0.821918 -0.321918 -2.104110 14 33 20
-0.815068 -0.321918 -2.104110 12 31 17
-0.802721 -0.319728 -2.089796 14 32 18
-0.795918 -0.319728 -2.089796 13 30 16
-0.789116 -0.319728 -2.089796 14 32 20
-0.782313 -0.319728 -2.089796 12 29 17
-0.775510 -0.319728 -2.089796 15 32 17
-0.768707 -0.319728 -2.089796 13 29 15
-0.761905 -0.319728 -2.089796 13 32 17
-0.755102 -0.319728 -2.089796 12 30 14
-0.743243 -0.317568 -2.075676 13 30 14
-0.736486 -0.317568 -2.075676 12 30 14
-0.724832 -0.315436 -2.061745 13 32 16
-0.718121 -0.315436 -2.061745 12 28 15
-0.711409 -0.315436 -2.061745 12 30 18
-0.690789 -0.309211 -2.021053 11 28 15
-0.670968 -0.303226 -1.981936 12 30 17
-0.664516 -0.303226 -1.981936 11 29 16
-0.653846 -0.301282 -1.969231 13 30 16
-0.647436 -0.301282 -1.969231 12 27 16
-0.636943 -0.299363 -1.956688 13 25 20
-0.630573 -0.299363 -1.956688 11 21 17
-0.624204 -0.299363 -1.956688 13 22 20
-0.617834 -0.299363 -1.956688 8 16 13
-0.611465 -0.299363 -1.956688 7 16 13
-0.605096 -0.299363 -1.956688 9 17 14
-0.598726 -0.299363 -1.956688 9 17 14
-0.592357 -0.299363 -1.956688 7 13 11
-0.585987 -0.299363 -1.956688 7 18 12
-0.579618 -0.299363 -1.956688 9 25 12
-0.573248 -0.299363 -1.956688 13 29 16
-0.566879 -0.299363 -1.956688 11 27 14
-0.560510 -0.299363 -1.956688 12 28 15
-0.554140 -0.299363 -1.956688 9 28 12
-0.544304 -0.297468 -1.944304 10 30 15
-0.534591 -0.295597 -1.932076 9 29 15
-0.515337 -0.288344 -1.884663 11 29 17
-0.412935 -0.233831 -1.528358 10 28 14
-0.403941 -0.231527 -1.513301 11 30 16
-0.402985 -0.233831 -1.528358 11 31 14
-0.398010 -0.233831 -1.528358 11 31 15
-0.391089 -0.232673 -1.520792 10 30 13
-0.386139 -0.232673 -1.520792 12 30 16
-0.379310 -0.231527 -1.513301 11 29 15
-0.374384 -0.231527 -1.513301 14 31 18
-0.369458 -0.231527 -1.513301 91 98 84
-0.364532 -0.231527 -1.513301 143 134 128
-0.359606 -0.231527 -1.513301 184 184 163
-0.352941 -0.230392 -1.505882 226 215 202
-0.348039 -0.230392 -1.505882 225 210 196
-0.343137 -0.230392 -1.505882 229 210 195
-0.338235 -0.230392 -1.505882 229 212 198
-0.333333 -0.230392 -1.505882 230 212 197
-0.328431 -0.230392 -1.505882 231 212 197
-0.323529 -0.230392 -1.505882 231 216 202
-0.318627 -0.230392 -1.505882 234 219 202
-0.312195 -0.229268 -1.498537 235 219 204
-0.307317 -0.229268 -1.498537 230 198 185
-0.302439 -0.229268 -1.498537 173 155 146
-0.297561 -0.229268 -1.498537 171 159 147
-0.292683 -0.229268 -1.498537 168 155 148
-0.286408 -0.228155 -1.491262 181 169 156
-0.281553 -0.228155 -1.491262 216 208 192
-0.276699 -0.228155 -1.491262 226 207 192
-0.271845 -0.228155 -1.491262 225 209 195
-0.266990 -0.228155 -1.491262 227 209 195
-0.262136 -0.228155 -1.491262 227 211 197
-0.257282 -0.228155 -1.491262 228 210 195
-0.252427 -0.228155 -1.491262 229 212 198
-0.247573 -0.228155 -1.491262 231 211 198
-0.242718 -0.228155 -1.491262 232 215 202
-0.237864 -0.228155 -1.491262 235 224 209
-0.233010 -0.228155 -1.491262 239 235 223
-0.228155 -0.228155 -1.491262 242 240 231
-0.223301 -0.228155 -1.491262 244 242 231
-0.218447 -0.228155 -1.491262 247 243 231
-0.213592 -0.228155 -1.491262 247 243 231
-0.208738 -0.228155 -1.491262 249 243 231
-0.203883 -0.228155 -1.491262 247 223 208
-0.199029 -0.228155 -1.491262 214 192 178
-0.193237 -0.227053 -1.484058 221 201 188
-0.188406 -0.227053 -1.484058 216 195 178
-0.183575 -0.227053 -1.484058 211 192 178
-0.178744 -0.227053 -1.484058 207 191 174
-0.173913 -0.227053 -1.484058 221 213 194
-0.169082 -0.227053 -1.484058 233 225 202
-0.164251 -0.227053 -1.484058 236 224 202
-0.159420 -0.227053 -1.484058 240 224 202
-0.154589 -0.227053 -1.484058 240 223 202
-0.149758 -0.227053 -1.484058 240 224 203
-0.144928 -0.227053 -1.484058 241 217 197
-0.140097 -0.227053 -1.484058 185 153 141
-0.135266 -0.227053 -1.484058 133 116 100
-0.130435 -0.227053 -1.484058 128 115 97
-0.126214 -0.228155 -1.491262 138 126 108
-0.121359 -0.228155 -1.491262 134 122 100
-0.116505 -0.228155 -1.491262 176 171 145
-0.111650 -0.228155 -1.491262 228 231 221
-0.106796 -0.228155 -1.491262 221 199 181
-0.101942 -0.228155 -1.491262 219 195 180
-0.097087 -0.228155 -1.491262 204 189 169
-0.092233 -0.228155 -1.491262 210 190 171
-0.087379 -0.228155 -1.491262 211 193 175
-0.082524 -0.228155 -1.491262 210 191 172
-0.077670 -0.228155 -1.491262 208 188 172
-0.072816 -0.228155 -1.491262 204 186 168
-0.067961 -0.228155 -1.491262 200 183 167
-0.063107 -0.228155 -1.491262 195 178 162
-0.058252 -0.228155 -1.491262 192 176 161
-0.053398 -0.228155 -1.491262 189 173 157
-0.048544 -0.228155 -1.491262 184 167 152
-0.043902 -0.229268 -1.498537 172 156 142
-0.039024 -0.229268 -1.498537 160 144 132
-0.034146 -0.229268 -1.498537 118 99 92
-0.029268 -0.229268 -1.498537 81 76 62
-0.024510 -0.230392 -1.505882 104 96 78
-0.019608 -0.230392 -1.505882 107 98 79
-0.014778 -0.231527 -1.513301 134 131 105
-0.009901 -0.232673 -1.520792 216 211 193
-0.004950 -0.232673 -1.520792 206 181 161
0.000000 -0.232673 -1.520792 214 195 177
0.004950 -0.232673 -1.520792 206 187 166
0.009901 -0.232673 -1.520792 205 184 167
0.014851 -0.232673 -1.520792 191 167 152
0.019802 -0.232673 -1.520792 132 109 98
0.024876 -0.233831 -1.528358 90 78 62
0.029851 -0.233831 -1.528358 93 83 70
0.034826 -0.233831 -1.528358 80 75 58
0.039801 -0.233831 -1.528358 104 105 79
0.044776 -0.233831 -1.528358 187 172 149
0.049751 -0.233831 -1.528358 148 135 111
0.061453 -0.262570 -1.716201 175 158 136
0.067039 -0.262570 -1.716201 165 150 126
0.072626 -0.262570 -1.716201 162 144 122
0.078212 -0.262570 -1.716201 134 120 101
0.083799 -0.262570 -1.716201 103 93 75
0.089385 -0.262570 -1.716201 85 77 61
0.095506 -0.264045 -1.725843 68 64 46
0.101124 -0.264045 -1.725843 64 62 45
0.106145 -0.262570 -1.716201 64 60 44
0.111732 -0.262570 -1.716201 67 64 44
0.117318 -0.262570 -1.716201 66 61 43
0.122905 -0.262570 -1.716201 69 64 47
0.128492 -0.262570 -1.716201 68 65 45
0.134078 -0.262570 -1.716201 69 66 45
0.139665 -0.262570 -1.716201 68 66 45
0.146067 -0.264045 -1.725843 77 72 52
0.151685 -0.264045 -1.725843 76 69 49
0.157303 -0.264045 -1.725843 70 65 45
0.162921 -0.264045 -1.725843 72 64 46
0.168539 -0.264045 -1.725843 69 65 47
0.173184 -0.262570 -1.716201 67 62 44
0.178771 -0.262570 -1.716201 69 65 47
0.184358 -0.262570 -1.716201 68 62 44
0.189944 -0.262570 -1.716201 69 64 46
0.195531 -0.262570 -1.716201 66 62 42
0.201117 -0.262570 -1.716201 67 62 44
0.206704 -0.262570 -1.716201 68 62 44
0.212290 -0.262570 -1.716201 66 62 42
0.217877 -0.262570 -1.716201 64 59 42
0.223464 -0.262570 -1.716201 68 65 45
0.229050 -0.262570 -1.716201 72 65 46
0.234637 -0.262570 -1.716201 64 60 40
0.240223 -0.262570 -1.716201 66 60 44
0.245810 -0.262570 -1.716201 64 62 45
0.251397 -0.262570 -1.716201 67 64 44
0.256983 -0.262570 -1.716201 66 63 44
0.262570 -0.262570 -1.716201 64 61 43
0.268156 -0.262570 -1.716201 64 61 43
0.273743 -0.262570 -1.716201 63 60 42
0.279330 -0.262570 -1.716201 65 63 43
0.284916 -0.262570 -1.716201 65 59 41
0.290503 -0.262570 -1.716201 66 61 45
0.296089 -0.262570 -1.716201 64 59 42
0.301676 -0.262570 -1.716201 63 62 44
0.307263 -0.262570 -1.716201 63 60 43
0.312849 -0.262570 -1.716201 63 61 43
0.318436 -0.262570 -1.716201 60 58 39
0.325843 -0.264045 -1.725843 64 64 44
0.331461 -0.264045 -1.725843 67 66 45
0.337079 -0.264045 -1.725843 66 62 47
0.342697 -0.264045 -1.725843 23 25 13
0.348315 -0.264045 -1.725843 13 20 9
0.353933 -0.264045 -1.725843 22 27 15
0.359551 -0.264045 -1.725843 28 32 20
0.365169 -0.264045 -1.725843 30 33 20
0.368715 -0.262570 -1.716201 33 39 25
0.374302 -0.262570 -1.716201 33 38 25
0.379888 -0.262570 -1.716201 38 42 28
0.385475 -0.262570 -1.716201 42 42 29
0.393258 -0.264045 -1.725843 49 47 36
0.398876 -0.264045 -1.725843 53 47 37
0.404494 -0.264045 -1.725843 53 49 38
0.410112 -0.264045 -1.725843 57 53 39
0.415730 -0.264045 -1.725843 59 56 43
0.418994 -0.262570 -1.716201 61 57 42
0.424581 -0.262570 -1.716201 61 59 44
0.432584 -0.264045 -1.725843 59 56 41
0.438202 -0.264045 -1.725843 62 58 46
0.443820 -0.264045 -1.725843 59 55 41
0.449438 -0.264045 -1.725843 58 56 43
0.455056 -0.264045 -1.725843 55 52 39
0.460674 -0.264045 -1.725843 56 56 42
0.466292 -0.264045 -1.725843 53 50 37
0.471910 -0.264045 -1.725843 55 49 39
0.477528 -0.264045 -1.725843 49 43 32
0.483146 -0.264045 -1.725843 40 40 30
0.488764 -0.264045 -1.725843 31 35 23
0.494382 -0.264045 -1.725843 18 29 18
0.500000 -0.264045 -1.725843 16 29 15
0.505618 -0.264045 -1.725843 17 34 18
0.508380 -0.262570 -1.716201 15 32 16
0.513967 -0.262570 -1.716201 16 34 17
0.519553 -0.262570 -1.716201 15 35 14
0.525140 -0.262570 -1.716201 16 37 17
0.530726 -0.262570 -1.716201 16 38 18
0.536313 -0.262570 -1.716201 13 36 19
0.541899 -0.262570 -1.716201 12 38 17
0.547486 -0.262570 -1.716201 16 44 19
0.556180 -0.264045 -1.725843 14 44 18
0.561798 -0.264045 -1.725843 19 55 24
0.564246 -0.262570 -1.716201 21 61 25
0.569832 -0.262570 -1.716201 30 80 35
0.575419 -0.262570 -1.716201 63 118 62
0.581006 -0.262570 -1.716201 116 153 116
0.586592 -0.262570 -1.716201 57 92 60
0.592179 -0.262570 -1.716201 32 74 37
0.597765 -0.262570 -1.716201 26 61 26
0.603352 -0.262570 -1.716201 25 61 30
0.608939 -0.262570 -1.716201 22 66 17
0.614525 -0.262570 -1.716201 74 146 61
0.620112 -0.262570 -1.716201 180 227 177
0.625698 -0.262570 -1.716201 138 163 127
0.631285 -0.262570 -1.716201 29 54 22
0.636872 -0.262570 -1.716201 19 43 21
0.642458 -0.262570 -1.716201 12 33 14
0.648045 -0.262570 -1.716201 11 33 16
0.653631 -0.262570 -1.716201 6 26 12
0.659218 -0.262570 -1.716201 9 27 14
0.664804 -0.262570 -1.716201 9 26 11
0.670391 -0.262570 -1.716201 9 26 14
0.675978 -0.262570 -1.716201 9 21 11
0.681564 -0.262570 -1.716201 8 22 12
0.687151 -0.262570 -1.716201 7 19 10
0.692737 -0.262570 -1.716201 10 19 12
0.702247 -0.264045 -1.725843 10 18 13
0.707865 -0.264045 -1.725843 18 26 18
0.713483 -0.264045 -1.725843 32 35 24
0.719101 -0.264045 -1.725843 29 34 21
0.724719 -0.264045 -1.725843 35 36 24
0.726257 -0.262570 -1.716201 45 44 34
0.731844 -0.262570 -1.716201 54 50 38
0.737430 -0.262570 -1.716201 61 57 46
0.743017 -0.262570 -1.716201 61 56 45
0.748603 -0.262570 -1.716201 62 57 46
0.754190 -0.262570 -1.716201 59 53 42
0.759777 -0.262570 -1.716201 57 55 42
0.765363 -0.262570 -1.716201 53 49 35
0.770950 -0.262570 -1.716201 53 49 35
0.776536 -0.262570 -1.716201 53 49 34
0.782123 -0.262570 -1.716201 54 49 37
0.787709 -0.262570 -1.716201 55 49 34
0.793296 -0.262570 -1.716201 55 52 36
0.798883 -0.262570 -1.716201 55 51 35
0.804469 -0.262570 -1.716201 57 53 37
0.810056 -0.262570 -1.716201 59 55 37
0.815642 -0.262570 -1.716201 62 58 44
0.821229 -0.262570 -1.716201 61 59 43
0.826816 -0.262570 -1.716201 62 58 44
1.020548 -0.321918 -2.104110 61 55 42
1.027397 -0.321918 -2.104110 59 56 42
1.034247 -0.321918 -2.104110 58 56 41
1.041096 -0.321918 -2.104110 66 60 48
1.047945 -0.321918 -2.104110 65 58 46
1.054795 -0.321918 -2.104110 65 61 47
1.061644 -0.321918 -2.104110 64 60 45
1.061224 -0.319728 -2.089796 65 61 47
1.060811 -0.317568 -2.075676 64 59 46
1.067568 -0.317568 -2.075676 66 63 49
1.081633 -0.319728 -2.089796 62 60 44
1.088435 -0.319728 -2.089796 68 65 50
1.095238 -0.319728 -2.089796 72 68 49
1.109589 -0.321918 -2.104110 86 80 61
1.116438 -0.321918 -2.104110 97 89 72
1.115646 -0.319728 -2.089796 109 100 83
1.114865 -0.317568 -2.075676 119 107 88
1.121622 -0.317568 -2.075676 126 114 96
1.128378 -0.317568 -2.075676 128 115 97
1.135135 -0.317568 -2.075676 131 119 100
1.141892 -0.317568 -2.075676 131 116 100
1.156463 -0.319728 -2.089796 132 118 98
1.163265 -0.319728 -2.089796 130 117 98
1.170068 -0.319728 -2.089796 132 120 102
1.168919 -0.317568 -2.075676 132 118 102
1.175676 -0.317568 -2.075676 132 120 104
1.182432 -0.317568 -2.075676 129 117 102
-1.342657 -0.335664 -2.148252 24 24 20
-2.010526 -0.505263 -3.233684 9 17 15
-2.000000 -0.505263 -3.233684 5 13 12
-1.733945 -0.440367 -2.818349 7 16 15
-1.724771 -0.440367 -2.818349 6 16 15
-1.684685 -0.432432 -2.767568 6 14 16
-1.576271 -0.406780 -2.603390 7 16 17
-1.491935 -0.387097 -2.477419 7 19 18
-1.472000 -0.384000 -2.457600 6 20 18
-1.418605 -0.372093 -2.381395 8 21 19
-1.309353 -0.345324 -2.210072 9 22 24
-1.292857 -0.342857 -2.194286 8 23 24
-1.267606 -0.338028 -2.163380 12 28 28
-1.260563 -0.338028 -2.163380 11 27 30
-1.219178 -0.328767 -2.104110 14 30 34
-1.212329 -0.328767 -2.104110 12 30 33
-1.205480 -0.328767 -2.104110 14 32 36
-1.198630 -0.328767 -2.104110 14 31 37
-1.191781 -0.328767 -2.104110 16 33 37
-1.184932 -0.328767 -2.104110 9 24 25
-1.178082 -0.328767 -2.104110 9 26 29
-1.171233 -0.328767 -2.104110 14 31 36
-1.164384 -0.328767 -2.104110 12 29 31
-1.157534 -0.328767 -2.104110 9 20 18
-1.150685 -0.328767 -2.104110 5 14 10
-1.143836 -0.328767 -2.104110 5 13 9
-1.136986 -0.328767 -2.104110 6 14 12
-1.130137 -0.328767 -2.104110 4 12 9
-1.123288 -0.328767 -2.104110 6 15 11
-1.116438 -0.328767 -2.104110 5 12 9
-1.109589 -0.328767 -2.104110 6 14 11
-1.102740 -0.328767 -2.104110 6 14 10
-1.095890 -0.328767 -2.104110 7 15 11
-1.089041 -0.328767 -2.104110 6 12 9
-1.082192 -0.328767 -2.104110 6 17 12
-1.075342 -0.328767 -2.104110 4 14 10
-1.068493 -0.328767 -2.104110 6 16 12
-1.061644 -0.328767 -2.104110 6 15 9
-1.054795 -0.328767 -2.104110 7 17 11
-1.047945 -0.328767 -2.104110 5 15 10
-1.041096 -0.328767 -2.104110 8 17 13
-1.034247 -0.328767 -2.104110 6 14 11
-1.027397 -0.328767 -2.104110 7 16 12
-1.020548 -0.328767 -2.104110 6 14 10
-1.013699 -0.328767 -2.104110 7 17 13
-1.006849 -0.328767 -2.104110 8 18 11
-1.000000 -0.328767 -2.104110 9 19 15
-0.993151 -0.328767 -2.104110 9 19 15
-0.986301 -0.328767 -2.104110 11 21 16
-0.979452 -0.328767 -2.104110 10 19 16
-0.972603 -0.328767 -2.104110 10 20 17
-0.965753 -0.328767 -2.104110 7 15 11
-0.958904 -0.328767 -2.104110 6 16 11
-0.952055 -0.328767 -2.104110 6 16 10
-0.945205 -0.328767 -2.104110 7 17 13
-0.938356 -0.328767 -2.104110 7 14 11
-0.931507 -0.328767 -2.104110 7 16 13
-0.924658 -0.328767 -2.104110 7 16 11
-0.917808 -0.328767 -2.104110 8 17 12
-0.910959 -0.328767 -2.104110 5 14 9
-0.904110 -0.328767 -2.104110 6 17 11
-0.897260 -0.328767 -2.104110 6 15 12
-0.890411 -0.328767 -2.104110 7 16 12
-0.883562 -0.328767 -2.104110 7 15 11
-0.876712 -0.328767 -2.104110 6 16 11
-0.869863 -0.328767 -2.104110 6 15 9
-0.863014 -0.328767 -2.104110 7 16 12
-0.856164 -0.328767 -2.104110 6 15 10
-0.849315 -0.328767 -2.104110 6 17 12
-0.842466 -0.328767 -2.104110 7 15 9
-0.835616 -0.328767 -2.104110 6 16 12
-0.828767 -0.328767 -2.104110 6 15 10
-0.821918 -0.328767 -2.104110 6 17 12
-0.809524 -0.326531 -2.089796 5 15 9
-0.802721 -0.326531 -2.089796 6 17 12
-0.795918 -0.326531 -2.089796 5 14 8
-0.789116 -0.326531 -2.089796 6 14 10
-0.782313 -0.326531 -2.089796 5 14 9
-0.775510 -0.326531 -2.089796 6 16 12
-0.768707 -0.326531 -2.089796 6 13 11
-0.761905 -0.326531 -2.089796 5 14 11
-0.755102 -0.326531 -2.089796 4 14 9
-0.743243 -0.324324 -2.075676 4 15 9
-0.736486 -0.324324 -2.075676 5 13 11
-0.724832 -0.322148 -2.061745 5 14 11
-0.718121 -0.322148 -2.061745 4 13 9
-0.711409 -0.322148 -2.061745 6 15 11
-0.690789 -0.315789 -2.021053 6 13 9
-0.670968 -0.309677 -1.981936 5 15 11
-0.664516 -0.309677 -1.981936 4 12 10
-0.653846 -0.307692 -1.969231 6 15 12
-0.647436 -0.307692 -1.969231 7 16 11
-0.636943 -0.305732 -1.956688 12 21 18
-0.630573 -0.305732 -1.956688 16 23 19
-0.624204 -0.305732 -1.956688 12 21 17
-0.617834 -0.305732 -1.956688 9 17 14
-0.611465 -0.305732 -1.956688 8 17 15
-0.605096 -0.305732 -1.956688 11 19 17
-0.598726 -0.305732 -1.956688 8 16 13
-0.592357 -0.305732 -1.956688 6 14 9
-0.585987 -0.305732 -1.956688 7 15 13
-0.579618 -0.305732 -1.956688 5 14 10
-0.573248 -0.305732 -1.956688 5 15 11
-0.566879 -0.305732 -1.956688 5 14 10
-0.560510 -0.305732 -1.956688 6 14 13
-0.554140 -0.305732 -1.956688 5 15 11
-0.544304 -0.303797 -1.944304 6 15 12
-0.534591 -0.301887 -1.932076 5 13 10
-0.515337 -0.294479 -1.884663 6 14 12
-0.408867 -0.236453 -1.513301 7 15 11
-0.400000 -0.234146 -1.498537 7 17 12
-0.395122 -0.234146 -1.498537 6 16 11
-0.392157 -0.235294 -1.505882 7 16 11
-0.389163 -0.236453 -1.513301 8 16 12
-0.384236 -0.236453 -1.513301 8 17 13
-0.379310 -0.236453 -1.513301 7 16 12
-0.374384 -0.236453 -1.513301 5 15 13
-0.369458 -0.236453 -1.513301 51 63 52
-0.364532 -0.236453 -1.513301 148 140 133
-0.359606 -0.236453 -1.513301 155 151 134
-0.352941 -0.235294 -1.505882 223 219 207
-0.348039 -0.235294 -1.505882 225 206 189
-0.343137 -0.235294 -1.505882 227 212 198
-0.338235 -0.235294 -1.505882 230 212 196
-0.333333 -0.235294 -1.505882 230 211 196
-0.328431 -0.235294 -1.505882 230 211 195
-0.321951 -0.234146 -1.498537 231 216 201
-0.317073 -0.234146 -1.498537 234 217 201
-0.312195 -0.234146 -1.498537 234 218 203
-0.307317 -0.234146 -1.498537 226 195 183
-0.302439 -0.234146 -1.498537 172 153 144
-0.297561 -0.234146 -1.498537 172 157 146
-0.292683 -0.234146 -1.498537 171 157 147
-0.287805 -0.234146 -1.498537 181 168 155
-0.281553 -0.233010 -1.491262 215 207 193
-0.276699 -0.233010 -1.491262 227 207 191
-0.271845 -0.233010 -1.491262 226 209 195
-0.266990 -0.233010 -1.491262 227 209 193
-0.262136 -0.233010 -1.491262 228 210 196
-0.257282 -0.233010 -1.491262 228 209 194
-0.252427 -0.233010 -1.491262 229 213 200
-0.247573 -0.233010 -1.491262 232 213 199
-0.242718 -0.233010 -1.491262 233 215 202
-0.237864 -0.233010 -1.491262 235 223 209
-0.233010 -0.233010 -1.491262 239 235 225
-0.228155 -0.233010 -1.491262 243 240 231
-0.223301 -0.233010 -1.491262 244 243 232
-0.218447 -0.233010 -1.491262 247 244 234
-0.213592 -0.233010 -1.491262 247 244 235
-0.208738 -0.233010 -1.491262 247 245 234
-0.203883 -0.233010 -1.491262 248 222 207
-0.199029 -0.233010 -1.491262 214 195 179
-0.193237 -0.231884 -1.484058 222 201 188
-0.188406 -0.231884 -1.484058 210 190 175
-0.183575 -0.231884 -1.484058 202 182 171
-0.178744 -0.231884 -1.484058 193 174 163
-0.173913 -0.231884 -1.484058 194 177 164
-0.169082 -0.231884 -1.484058 203 189 170
-0.164251 -0.231884 -1.484058 213 201 179
-0.159420 -0.231884 -1.484058 220 206 183
-0.154589 -0.231884 -1.484058 227 213 190
-0.149758 -0.231884 -1.484058 232 217 193
-0.144928 -0.231884 -1.484058 214 182 167
-0.140097 -0.231884 -1.484058 147 126 112
-0.135266 -0.231884 -1.484058 144 127 112
-0.131068 -0.233010 -1.491262 130 116 98
-0.126214 -0.233010 -1.491262 141 127 106
-0.121359 -0.233010 -1.491262 136 122 104
-0.116505 -0.233010 -1.491262 178 173 151
-0.111650 -0.233010 -1.491262 228 231 224
-0.106796 -0.233010 -1.491262 235 226 206
-0.101942 -0.233010 -1.491262 237 216 200
-0.097087 -0.233010 -1.491262 215 190 174
-0.092233 -0.233010 -1.491262 209 188 170
-0.087379 -0.233010 -1.491262 210 194 174
-0.082524 -0.233010 -1.491262 209 190 170
-0.077670 -0.233010 -1.491262 207 188 170
-0.072816 -0.233010 -1.491262 203 185 164
-0.067961 -0.233010 -1.491262 199 179 160
-0.063107 -0.233010 -1.491262 190 171 153
-0.058252 -0.233010 -1.491262 185 168 151
-0.053398 -0.233010 -1.491262 175 158 143
-0.048544 -0.233010 -1.491262 167 151 138
-0.043689 -0.233010 -1.491262 158 142 128
-0.039024 -0.234146 -1.498537 141 126 118
-0.034146 -0.234146 -1.498537 95 80 73
-0.029268 -0.234146 -1.498537 86 79 65
-0.024510 -0.235294 -1.505882 99 88 75
-0.019608 -0.235294 -1.505882 101 93 79
-0.014778 -0.236453 -1.513301 122 118 96
-0.009901 -0.237624 -1.520792 209 204 186
-0.004950 -0.237624 -1.520792 205 181 164
0.000000 -0.237624 -1.520792 208 191 174
0.004950 -0.237624 -1.520792 204 184 165
0.009901 -0.237624 -1.520792 204 183 165
0.014851 -0.237624 -1.520792 196 172 155
0.019900 -0.238806 -1.528358 133 107 97
0.024876 -0.238806 -1.528358 86 77 59
0.029851 -0.238806 -1.528358 94 84 69
0.034826 -0.238806 -1.528358 84 77 60
0.039801 -0.238806 -1.528358 106 104 77
0.044776 -0.238806 -1.528358 183 168 144
0.049751 -0.238806 -1.528358 145 133 106
0.061453 -0.268156 -1.716201 160 146 121
0.067039 -0.268156 -1.716201 145 134 107
0.072626 -0.268156 -1.716201 137 123 102
0.078212 -0.268156 -1.716201 101 92 76
0.083799 -0.268156 -1.716201 79 73 55
0.089385 -0.268156 -1.716201 66 60 43
0.094972 -0.268156 -1.716201 63 57 39
0.100559 -0.268156 -1.716201 62 59 40
0.106145 -0.268156 -1.716201 59 58 38
0.111732 -0.268156 -1.716201 62 60 41
0.117318 -0.268156 -1.716201 62 59 40
0.122905 -0.268156 -1.716201 63 60 42
0.128492 -0.268156 -1.716201 62 59 41
0.134078 -0.268156 -1.716201 63 59 42
0.140449 -0.269663 -1.725843 66 62 44
0.146067 -0.269663 -1.725843 69 66 44
0.151685 -0.269663 -1.725843 66 61 43
0.157303 -0.269663 -1.725843 63 60 43
0.162921 -0.269663 -1.725843 63 59 40
0.167598 -0.268156 -1.716201 66 62 42
0.173184 -0.268156 -1.716201 65 61 42
0.178771 -0.268156 -1.716201 68 62 42
0.184358 -0.268156 -1.716201 64 58 40
0.189944 -0.268156 -1.716201 64 59 41
0.195531 -0.268156 -1.716201 62 59 37
0.201117 -0.268156 -1.716201 64 60 40
0.206704 -0.268156 -1.716201 58 55 39
0.212290 -0.268156 -1.716201 59 57 40
0.217877 -0.268156 -1.716201 55 53 34
0.223464 -0.268156 -1.716201 58 56 38
0.229050 -0.268156 -1.716201 61 58 39
0.234637 -0.268156 -1.716201 62 58 39
0.240223 -0.268156 -1.716201 64 58 39
0.245810 -0.268156 -1.716201 65 60 41
0.251397 -0.268156 -1.716201 64 59 42
0.256983 -0.268156 -1.716201 60 58 41
0.262570 -0.268156 -1.716201 59 55 37
0.268156 -0.268156 -1.716201 59 57 38
0.273743 -0.268156 -1.716201 59 55 37
0.279330 -0.268156 -1.716201 61 56 40
0.284916 -0.268156 -1.716201 61 57 38
0.290503 -0.268156 -1.716201 59 56 38
0.296089 -0.268156 -1.716201 57 56 35
0.301676 -0.268156 -1.716201 59 56 39
0.307263 -0.268156 -1.716201 59 55 35
0.312849 -0.268156 -1.716201 59 55 37
0.318436 -0.268156 -1.716201 55 53 36
0.324022 -0.268156 -1.716201 56 55 40
0.331461 -0.269663 -1.725843 54 51 38
0.337079 -0.269663 -1.725843 52 50 35
0.342697 -0.269663 -1.725843 32 32 20
0.348315 -0.269663 -1.725843 22 29 18
0.353933 -0.269663 -1.725843 19 24 14
0.357542 -0.268156 -1.716201 18 25 16
0.363128 -0.268156 -1.716201 26 32 18
0.368715 -0.268156 -1.716201 42 45 30
0.374302 -0.268156 -1.716201 52 50 33
0.379888 -0.268156 -1.716201 61 56 40
0.385475 -0.268156 -1.716201 60 55 39
0.391061 -0.268156 -1.716201 60 59 42
0.398876 -0.269663 -1.725843 59 56 39
0.404494 -0.269663 -1.725843 65 62 46
0.410112 -0.269663 -1.725843 64 59 44
0.413408 -0.268156 -1.716201 65 62 46
0.418994 -0.268156 -1.716201 62 58 41
0.424581 -0.268156 -1.716201 64 61 47
0.430168 -0.268156 -1.716201 63 60 44
0.435754 -0.268156 -1.716201 66 63 46
0.441341 -0.268156 -1.716201 65 61 43
0.449438 -0.269663 -1.725843 65 61 44
0.455056 -0.269663 -1.725843 62 58 41
0.458101 -0.268156 -1.716201 63 62 47
0.463687 -0.268156 -1.716201 57 57 38
0.469274 -0.268156 -1.716201 59 58 42
0.474860 -0.268156 -1.716201 55 53 39
0.480447 -0.268156 -1.716201 57 55 41
0.486034 -0.268156 -1.716201 50 47 34
0.491620 -0.268156 -1.716201 40 39 28
0.497207 -0.268156 -1.716201 23 28 18
0.502793 -0.268156 -1.716201 18 26 16
0.508380 -0.268156 -1.716201 22 28 16
0.513967 -0.268156 -1.716201 27 37 23
0.519553 -0.268156 -1.716201 35 38 27
0.525140 -0.268156 -1.716201 37 41 29
0.530726 -0.268156 -1.716201 41 42 27
0.536313 -0.268156 -1.716201 44 46 31
0.541899 -0.268156 -1.716201 47 48 35
0.547486 -0.268156 -1.716201 54 56 43
0.553073 -0.268156 -1.716201 62 61 50
0.558659 -0.268156 -1.716201 78 75 61
0.564246 -0.268156 -1.716201 98 91 77
0.569832 -0.268156 -1.716201 129 123 102
0.575419 -0.268156 -1.716201 200 194 174
0.581006 -0.268156 -1.716201 230 233 225
0.586592 -0.268156 -1.716201 229 204 196
0.592179 -0.268156 -1.716201 159 125 116
0.597765 -0.268156 -1.716201 126 102 94
0.603352 -0.268156 -1.716201 103 90 78
0.608939 -0.268156 -1.716201 91 90 60
0.614525 -0.268156 -1.716201 153 172 116
0.620112 -0.268156 -1.716201 225 232 217
0.625698 -0.268156 -1.716201 206 206 173
0.631285 -0.268156 -1.716201 77 58 42
0.636872 -0.268156 -1.716201 64 63 46
0.642458 -0.268156 -1.716201 45 42 31
0.648045 -0.268156 -1.716201 33 37 28
0.653631 -0.268156 -1.716201 25 30 19
0.659218 -0.268156 -1.716201 23 29 20
0.664804 -0.268156 -1.716201 21 27 17
0.670391 -0.268156 -1.716201 18 28 17
0.675978 -0.268156 -1.716201 19 25 13
0.681564 -0.268156 -1.716201 22 27 16
0.687151 -0.268156 -1.716201 18 28 15
0.692737 -0.268156 -1.716201 21 27 17
0.698324 -0.268156 -1.716201 22 26 18
0.703911 -0.268156 -1.716201 29 34 24
0.713483 -0.269663 -1.725843 40 42 29
0.715084 -0.268156 -1.716201 52 52 39
0.720670 -0.268156 -1.716201 56 54 40
0.726257 -0.268156 -1.716201 59 56 40
0.731844 -0.268156 -1.716201 62 59 42
0.737430 -0.268156 -1.716201 64 59 43
0.743017 -0.268156 -1.716201 62 59 43
0.748603 -0.268156 -1.716201 61 57 41
0.754190 -0.268156 -1.716201 59 56 41
0.759777 -0.268156 -1.716201 63 59 45
0.765363 -0.268156 -1.716201 60 56 41
0.770950 -0.268156 -1.716201 60 58 42
0.776536 -0.268156 -1.716201 55 51 38
0.782123 -0.268156 -1.716201 52 50 34
0.787709 -0.268156 -1.716201 52 47 32
0.793296 -0.268156 -1.716201 51 47 34
0.798883 -0.268156 -1.716201 54 50 34
0.804469 -0.268156 -1.716201 54 51 36
0.810056 -0.268156 -1.716201 55 52 35
0.815642 -0.268156 -1.716201 57 54 37
0.816667 -0.266667 -1.706667 60 56 40
0.822222 -0.266667 -1.706667 61 56 42
0.827778 -0.266667 -1.706667 61 55 40
1.027397 -0.328767 -2.104110 63 58 44
1.034247 -0.328767 -2.104110 64 58 43
1.041096 -0.328767 -2.104110 64 60 47
1.047945 -0.328767 -2.104110 63 58 45
1.054795 -0.328767 -2.104110 65 60 48
1.054422 -0.326531 -2.089796 63 59 46
1.061224 -0.326531 -2.089796 64 61 46
1.060811 -0.324324 -2.075676 64 59 44
1.067568 -0.324324 -2.075676 65 62 47
1.081633 -0.326531 -2.089796 64 60 46
1.088435 -0.326531 -2.089796 66 63 47
1.102740 -0.328767 -2.104110 71 67 50
1.109589 -0.328767 -2.104110 86 80 62
1.108844 -0.326531 -2.089796 96 88 69
1.115646 -0.326531 -2.089796 109 100 82
1.114865 -0.324324 -2.075676 118 107 88
1.121622 -0.324324 -2.075676 125 114 96
1.128378 -0.324324 -2.075676 128 115 99
1.135135 -0.324324 -2.075676 131 117 99
1.149660 -0.326531 -2.089796 129 116 97
1.156463 -0.326531 -2.089796 130 117 99
1.163265 -0.326531 -2.089796 129 118 99
1.170068 -0.326531 -2.089796 130 120 102
1.176871 -0.326531 -2.089796 131 119 102
1.175676 -0.324324 -2.075676 132 120 103
1.190476 -0.326531 -2.089796 132 119 103
-1.342657 -0.342657 -2.148252 25 25 21
-2.031915 -0.521277 -3.268085 9 17 16
-2.021277 -0.521277 -3.268085 4 14 12
-1.733945 -0.449541 -2.818349 7 17 16
-1.709091 -0.445455 -2.792727 6 17 15
-1.684685 -0.441441 -2.767568 6 17 16
-1.563025 -0.411765 -2.581513 7 17 18
-1.491935 -0.395161 -2.477419 7 18 17
-1.472000 -0.392000 -2.457600 7 20 18
-1.407692 -0.376923 -2.363077 8 20 21
-1.309353 -0.352518 -2.210072 8 20 21
-1.292857 -0.350000 -2.194286 9 23 25
-1.276596 -0.347518 -2.178724 12 28 30
-1.260563 -0.345070 -2.163380 11 28 35
-1.219178 -0.335616 -2.104110 13 29 37
-1.212329 -0.335616 -2.104110 11 29 35
-1.205480 -0.335616 -2.104110 12 33 38
-1.198630 -0.335616 -2.104110 13 34 39
-1.191781 -0.335616 -2.104110 17 36 39
-1.184932 -0.335616 -2.104110 11 28 30
-1.178082 -0.335616 -2.104110 11 30 35
-1.171233 -0.335616 -2.104110 16 36 42
-1.164384 -0.335616 -2.104110 15 34 38
-1.157534 -0.335616 -2.104110 9 22 21
-1.150685 -0.335616 -2.104110 6 14 10
-1.143836 -0.335616 -2.104110 5 13 10
-1.136986 -0.335616 -2.104110 7 14 12
-1.130137 -0.335616 -2.104110 5 12 10
-1.123288 -0.335616 -2.104110 6 14 12
-1.116438 -0.335616 -2.104110 6 13 12
-1.109589 -0.335616 -2.104110 7 15 13
-1.102740 -0.335616 -2.104110 6 14 11
-1.095890 -0.335616 -2.104110 7 16 12
-1.089041 -0.335616 -2.104110 7 15 12
-1.082192 -0.335616 -2.104110 8 16 14
-1.075342 -0.335616 -2.104110 6 13 10
-1.068493 -0.335616 -2.104110 8 15 12
-1.061644 -0.335616 -2.104110 8 14 11
-1.054795 -0.335616 -2.104110 8 17 12
-1.047945 -0.335616 -2.104110 8 15 11
-1.041096 -0.335616 -2.104110 9 16 12
-1.034247 -0.335616 -2.104110 8 14 10
-1.027397 -0.335616 -2.104110 9 16 13
-1.020548 -0.335616 -2.104110 8 15 11
-1.013699 -0.335616 -2.104110 9 15 15
-1.006849 -0.335616 -2.104110 8 17 12
-1.000000 -0.335616 -2.104110 10 18 14
-0.993151 -0.335616 -2.104110 9 17 12
-0.986301 -0.335616 -2.104110 10 19 15
-0.979452 -0.335616 -2.104110 9 17 13
-0.972603 -0.335616 -2.104110 8 16 13
-0.965753 -0.335616 -2.104110 5 13 9
-0.958904 -0.335616 -2.104110 7 15 11
-0.952055 -0.335616 -2.104110 5 13 9
-0.945205 -0.335616 -2.104110 6 13 12
-0.938356 -0.335616 -2.104110 6 13 11
-0.931507 -0.335616 -2.104110 7 15 12
-0.924658 -0.335616 -2.104110 5 12 11
-0.917808 -0.335616 -2.104110 7 15 12
-0.910959 -0.335616 -2.104110 7 14 9
-0.904110 -0.335616 -2.104110 7 15 12
-0.897260 -0.335616 -2.104110 5 12 10
-0.890411 -0.335616 -2.104110 7 14 12
-0.883562 -0.335616 -2.104110 6 13 10
-0.876712 -0.335616 -2.104110 7 15 11
-0.869863 -0.335616 -2.104110 6 13 10
-0.863014 -0.335616 -2.104110 8 15 13
-0.856164 -0.335616 -2.104110 6 13 11
-0.849315 -0.335616 -2.104110 7 14 11
-0.842466 -0.335616 -2.104110 6 14 10
-0.835616 -0.335616 -2.104110 7 16 13
-0.828767 -0.335616 -2.104110 5 13 10
-0.821918 -0.335616 -2.104110 7 14 13
-0.809524 -0.333333 -2.089796 7 11 11
-0.802721 -0.333333 -2.089796 7 13 13
-0.795918 -0.333333 -2.089796 6 12 11
-0.789116 -0.333333 -2.089796 7 14 12
-0.782313 -0.333333 -2.089796 6 13 11
-0.775510 -0.333333 -2.089796 6 14 13
-0.768707 -0.333333 -2.089796 6 13 12
-0.761905 -0.333333 -2.089796 6 14 12
-0.750000 -0.331081 -2.075676 6 13 11
-0.743243 -0.331081 -2.075676 7 13 12
-0.736486 -0.331081 -2.075676 7 13 10
-0.729730 -0.331081 -2.075676 7 13 11
-0.718121 -0.328859 -2.061745 7 14 12
-0.711409 -0.328859 -2.061745 7 13 12
-0.681818 -0.318182 -1.994805 6 12 11
-0.670968 -0.316129 -1.981936 7 14 12
-0.664516 -0.316129 -1.981936 7 13 11
-0.653846 -0.314103 -1.969231 7 15 13
-0.647436 -0.314103 -1.969231 8 17 13
-0.636943 -0.312102 -1.956688 14 24 21
-0.630573 -0.312102 -1.956688 16 24 20
-0.624204 -0.312102 -1.956688 10 21 16
-0.617834 -0.312102 -1.956688 7 15 13
-0.611465 -0.312102 -1.956688 9 18 17
-0.605096 -0.312102 -1.956688 9 16 14
-0.598726 -0.312102 -1.956688 7 14 13
-0.592357 -0.312102 -1.956688 6 13 12
-0.585987 -0.312102 -1.956688 7 15 14
-0.579618 -0.312102 -1.956688 5 14 11
-0.573248 -0.312102 -1.956688 8 16 14
-0.566879 -0.312102 -1.956688 7 14 12
-0.560510 -0.312102 -1.956688 7 15 14
-0.554140 -0.312102 -1.956688 6 13 12
-0.547771 -0.312102 -1.956688 7 16 13
-0.537975 -0.310127 -1.944304 8 14 12
-0.528302 -0.308176 -1.932076 9 16 14
-0.509202 -0.300613 -1.884663 6 14 11
-0.400000 -0.239024 -1.498537 7 16 13
-0.395122 -0.239024 -1.498537 6 13 12
-0.390244 -0.239024 -1.498537 8 15 13
-0.387255 -0.240196 -1.505882 8 14 10
-0.384236 -0.241379 -1.513301 9 16 13
-0.379310 -0.241379 -1.513301 8 14 11
-0.374384 -0.241379 -1.513301 9 17 14
-0.369458 -0.241379 -1.513301 24 34 24
-0.364532 -0.241379 -1.513301 133 133 123
-0.359606 -0.241379 -1.513301 143 134 125
-0.354680 -0.241379 -1.513301 209 209 194
-0.348039 -0.240196 -1.505882 226 208 193
-0.343137 -0.240196 -1.505882 227 213 199
-0.338235 -0.240196 -1.505882 230 210 194
-0.333333 -0.240196 -1.505882 230 212 198
-0.326829 -0.239024 -1.498537 230 211 194
-0.321951 -0.239024 -1.498537 230 214 200
-0.317073 -0.239024 -1.498537 233 214 199
-0.312195 -0.239024 -1.498537 234 216 200
-0.307317 -0.239024 -1.498537 220 192 181
-0.302439 -0.239024 -1.498537 169 154 143
-0.297561 -0.239024 -1.498537 171 156 147
-0.292683 -0.239024 -1.498537 171 157 148
-0.287805 -0.239024 -1.498537 179 168 156
-0.281553 -0.237864 -1.491262 216 208 193
-0.276699 -0.237864 -1.491262 227 206 192
-0.271845 -0.237864 -1.491262 225 209 194
-0.266990 -0.237864 -1.491262 226 207 193
-0.262136 -0.237864 -1.491262 227 210 195
-0.257282 -0.237864 -1.491262 228 210 193
-0.252427 -0.237864 -1.491262 229 212 197
-0.247573 -0.237864 -1.491262 230 212 195
-0.242718 -0.237864 -1.491262 231 215 201
-0.237864 -0.237864 -1.491262 235 224 210
-0.233010 -0.237864 -1.491262 240 235 225
-0.228155 -0.237864 -1.491262 243 240 231
-0.223301 -0.237864 -1.491262 244 242 232
-0.218447 -0.237864 -1.491262 247 244 233
-0.213592 -0.237864 -1.491262 247 245 233
-0.208738 -0.237864 -1.491262 247 246 234
-0.203883 -0.237864 -1.491262 248 222 211
-0.199029 -0.237864 -1.491262 220 195 179
-0.193237 -0.236715 -1.484058 218 196 184
-0.188406 -0.236715 -1.484058 207 187 174
-0.183575 -0.236715 -1.484058 201 183 170
-0.178744 -0.236715 -1.484058 196 177 165
-0.173913 -0.236715 -1.484058 189 171 161
-0.169082 -0.236715 -1.484058 187 167 156
-0.164251 -0.236715 -1.484058 187 166 155
-0.159420 -0.236715 -1.484058 184 165 152
-0.154589 -0.236715 -1.484058 187 170 155
-0.149758 -0.236715 -1.484058 189 170 155
-0.144928 -0.236715 -1.484058 168 147 135
-0.140097 -0.236715 -1.484058 144 127 112
-0.135922 -0.237864 -1.491262 146 129 114
-0.131068 -0.237864 -1.491262 136 122 105
-0.126214 -0.237864 -1.491262 140 127 109
-0.121359 -0.237864 -1.491262 138 126 108
-0.116505 -0.237864 -1.491262 197 197 178
-0.111650 -0.237864 -1.491262 231 235 229
-0.106796 -0.237864 -1.491262 236 231 209
-0.101942 -0.237864 -1.491262 239 235 215
-0.097087 -0.237864 -1.491262 241 219 198
-0.092233 -0.237864 -1.491262 218 189 171
-0.087379 -0.237864 -1.491262 204 186 168
-0.082524 -0.237864 -1.491262 199 180 161
-0.077670 -0.237864 -1.491262 194 176 157
-0.072816 -0.237864 -1.491262 188 168 150
-0.067961 -0.237864 -1.491262 184 165 149
-0.063107 -0.237864 -1.491262 179 161 144
-0.058252 -0.237864 -1.491262 178 161 145
-0.053398 -0.237864 -1.491262 173 155 138
-0.048544 -0.237864 -1.491262 167 151 137
-0.043689 -0.237864 -1.491262 159 142 129
-0.039024 -0.239024 -1.498537 131 115 105
-0.034146 -0.239024 -1.498537 87 76 65
-0.029268 -0.239024 -1.498537 91 84 70
-0.024510 -0.240196 -1.505882 95 86 68
-0.019608 -0.240196 -1.505882 98 90 73
-0.014778 -0.241379 -1.513301 115 111 90
-0.009901 -0.242574 -1.520792 202 197 176
-0.004950 -0.242574 -1.520792 203 180 164
0.000000 -0.242574 -1.520792 203 187 170
0.004950 -0.242574 -1.520792 198 177 160
0.009950 -0.243781 -1.528358 200 181 162
0.014925 -0.243781 -1.528358 188 166 150
0.019900 -0.243781 -1.528358 120 98 87
0.024876 -0.243781 -1.528358 88 78 62
0.029851 -0.243781 -1.528358 91 80 67
0.034826 -0.243781 -1.528358 84 77 60
0.039801 -0.243781 -1.528358 90 87 60
0.044776 -0.243781 -1.528358 117 111 79
0.049751 -0.243781 -1.528358 103 98 70
0.061453 -0.273743 -1.716201 89 87 62
0.067039 -0.273743 -1.716201 56 66 43
0.072626 -0.273743 -1.716201 42 53 31
0.078212 -0.273743 -1.716201 34 46 27
0.083799 -0.273743 -1.716201 44 49 28
0.089385 -0.273743 -1.716201 47 48 32
0.094972 -0.273743 -1.716201 42 43 27
0.100559 -0.273743 -1.716201 41 43 27
0.106145 -0.273743 -1.716201 39 41 24
0.111732 -0.273743 -1.716201 39 44 25
0.117318 -0.273743 -1.716201 39 43 24
0.122905 -0.273743 -1.716201 41 43 26
0.128492 -0.273743 -1.716201 37 41 23
0.134078 -0.273743 -1.716201 39 44 27
0.140449 -0.275281 -1.725843 40 42 24
0.146067 -0.275281 -1.725843 42 44 26
0.151685 -0.275281 -1.725843 39 42 24
0.157303 -0.275281 -1.725843 39 42 26
0.162921 -0.275281 -1.725843 40 42 24
0.167598 -0.273743 -1.716201 39 44 28
0.173184 -0.273743 -1.716201 39 41 22
0.178771 -0.273743 -1.716201 38 42 25
0.184358 -0.273743 -1.716201 37 39 26
0.189944 -0.273743 -1.716201 40 43 27
0.195531 -0.273743 -1.716201 37 39 23
0.201117 -0.273743 -1.716201 37 41 24
0.206704 -0.273743 -1.716201 35 39 22
0.212290 -0.273743 -1.716201 31 35 23
0.217877 -0.273743 -1.716201 18 26 12
0.223464 -0.273743 -1.716201 19 29 15
0.229050 -0.273743 -1.716201 25 33 18
0.234637 -0.273743 -1.716201 36 40 24
0.240223 -0.273743 -1.716201 38 40 23
0.245810 -0.273743 -1.716201 41 43 26
0.251397 -0.273743 -1.716201 37 39 22
0.256983 -0.273743 -1.716201 35 38 22
0.262570 -0.273743 -1.716201 35 38 20
0.268156 -0.273743 -1.716201 37 40 23
0.273743 -0.273743 -1.716201 36 39 22
0.279330 -0.273743 -1.716201 36 40 21
0.284916 -0.273743 -1.716201 36 38 19
0.290503 -0.273743 -1.716201 35 38 22
0.296089 -0.273743 -1.716201 34 37 19
0.301676 -0.273743 -1.716201 35 38 22
0.307263 -0.273743 -1.716201 34 37 19
0.312849 -0.273743 -1.716201 35 39 21
0.318436 -0.273743 -1.716201 33 36 20
0.324022 -0.273743 -1.716201 31 35 20
0.329609 -0.273743 -1.716201 30 36 19
0.335196 -0.273743 -1.716201 31 36 22
0.340782 -0.273743 -1.716201 26 29 17
0.346369 -0.273743 -1.716201 32 34 21
0.351955 -0.273743 -1.716201 33 33 19
0.357542 -0.273743 -1.716201 37 36 23
0.363128 -0.273743 -1.716201 31 33 18
0.368715 -0.273743 -1.716201 38 42 26
0.374302 -0.273743 -1.716201 45 46 29
0.379888 -0.273743 -1.716201 55 53 34
0.385475 -0.273743 -1.716201 58 54 35
0.393258 -0.275281 -1.725843 59 57 37
0.398876 -0.275281 -1.725843 58 56 35
0.404494 -0.275281 -1.725843 61 59 38
0.410112 -0.275281 -1.725843 59 57 37
0.413408 -0.273743 -1.716201 62 59 39
0.418994 -0.273743 -1.716201 59 56 36
0.424581 -0.273743 -1.716201 58 57 37
0.430168 -0.273743 -1.716201 58 56 35
0.435754 -0.273743 -1.716201 60 58 39
0.441341 -0.273743 -1.716201 61 57 37
0.446927 -0.273743 -1.716201 61 60 38
0.452514 -0.273743 -1.716201 59 58 38
0.458101 -0.273743 -1.716201 59 56 38
0.463687 -0.273743 -1.716201 54 53 30
0.469274 -0.273743 -1.716201 60 59 39
0.474860 -0.273743 -1.716201 52 52 33
0.480447 -0.273743 -1.716201 56 55 36
0.486034 -0.273743 -1.716201 55 53 32
0.491620 -0.273743 -1.716201 50 49 32
0.497207 -0.273743 -1.716201 46 44 28
0.502793 -0.273743 -1.716201 39 38 24
0.508380 -0.273743 -1.716201 28 31 18
0.513967 -0.273743 -1.716201 35 38 25
0.519553 -0.273743 -1.716201 38 39 25
0.525140 -0.273743 -1.716201 45 45 29
0.530726 -0.273743 -1.716201 47 47 29
0.536313 -0.273743 -1.716201 48 48 31
0.541899 -0.273743 -1.716201 49 48 27
0.547486 -0.273743 -1.716201 53 53 32
0.553073 -0.273743 -1.716201 55 54 34
0.558659 -0.273743 -1.716201 59 61 36
0.564246 -0.273743 -1.716201 65 67 39
0.569832 -0.273743 -1.716201 68 78 42
0.575419 -0.273743 -1.716201 85 108 55
0.581006 -0.273743 -1.716201 111 136 80
0.586592 -0.273743 -1.716201 90 101 59
0.592179 -0.273743 -1.716201 68 75 40
0.597765 -0.273743 -1.716201 63 65 37
0.603352 -0.273743 -1.716201 60 61 35
0.608939 -0.273743 -1.716201 58 62 29
0.614525 -0.273743 -1.716201 71 93 42
0.620112 -0.273743 -1.716201 114 141 87
0.625698 -0.273743 -1.716201 67 70 42
0.631285 -0.273743 -1.716201 43 43 18
0.636872 -0.273743 -1.716201 53 49 25
0.642458 -0.273743 -1.716201 51 47 27
0.648045 -0.273743 -1.716201 47 45 29
0.653631 -0.273743 -1.716201 29 28 19
0.659218 -0.273743 -1.716201 10 20 9
0.664804 -0.273743 -1.716201 32 37 23
0.670391 -0.273743 -1.716201 45 43 27
0.675978 -0.273743 -1.716201 46 41 22
0.681564 -0.273743 -1.716201 46 44 26
0.687151 -0.273743 -1.716201 46 44 25
0.692737 -0.273743 -1.716201 48 45 28
0.698324 -0.273743 -1.716201 47 44 24
0.703911 -0.273743 -1.716201 49 48 29
0.709497 -0.273743 -1.716201 55 51 31
0.715084 -0.273743 -1.716201 54 50 31
0.720670 -0.273743 -1.716201 52 49 29
0.726257 -0.273743 -1.716201 51 51 30
0.731844 -0.273743 -1.716201 50 50 29
0.737430 -0.273743 -1.716201 50 51 30
0.743017 -0.273743 -1.716201 53 51 30
0.748603 -0.273743 -1.716201 53 50 32
0.754190 -0.273743 -1.716201 54 51 31
0.759777 -0.273743 -1.716201 51 52 31
0.765363 -0.273743 -1.716201 53 49 31
0.770950 -0.273743 -1.716201 51 49 30
0.776536 -0.273743 -1.716201 51 48 29
0.782123 -0.273743 -1.716201 49 47 31
0.787709 -0.273743 -1.716201 52 47 30
0.793296 -0.273743 -1.716201 50 47 30
0.798883 -0.273743 -1.716201 45 42 25
0.804469 -0.273743 -1.716201 48 46 30
0.810056 -0.273743 -1.716201 50 46 30
0.815642 -0.273743 -1.716201 52 49 34
0.816667 -0.272222 -1.706667 52 48 32
0.822222 -0.272222 -1.706667 55 52 35
0.832402 -0.273743 -1.716201 52 50 35
0.837989 -0.273743 -1.716201 55 52 38
1.034247 -0.335616 -2.104110 58 54 37
1.041096 -0.335616 -2.104110 61 57 39
1.047945 -0.335616 -2.104110 60 55 41
1.047619 -0.333333 -2.089796 57 55 42
1.054422 -0.333333 -2.089796 55 54 38
1.061224 -0.333333 -2.089796 58 57 41
1.060811 -0.331081 -2.075676 56 56 40
1.067568 -0.331081 -2.075676 65 61 48
1.081633 -0.333333 -2.089796 65 61 47
1.088435 -0.333333 -2.089796 66 63 49
1.102740 -0.335616 -2.104110 73 69 51
1.102041 -0.333333 -2.089796 85 80 62
1.108844 -0.333333 -2.089796 96 89 70
1.115646 -0.333333 -2.089796 108 99 81
1.114865 -0.331081 -2.075676 118 107 88
1.121622 -0.331081 -2.075676 126 114 96
1.136054 -0.333333 -2.089796 127 116 97
1.142857 -0.333333 -2.089796 129 117 99
1.149660 -0.333333 -2.089796 130 115 97
1.156463 -0.333333 -2.089796 132 116 98
1.163265 -0.333333 -2.089796 130 118 98
1.170068 -0.333333 -2.089796 130 119 101
1.176871 -0.333333 -2.089796 130 117 101
1.183674 -0.333333 -2.089796 130 120 104
1.190476 -0.333333 -2.089796 131 119 102
-1.342657 -0.349650 -2.148252 27 26 23
-2.031915 -0.531915 -3.268085 9 18 18
-2.021277 -0.531915 -3.268085 5 14 14
-2.010638 -0.531915 -3.268085 7 17 17
-1.709091 -0.454545 -2.792727 6 17 17
-1.684685 -0.450450 -2.767568 6 17 17
-1.563025 -0.420168 -2.581513 8 21 19
-1.491935 -0.403226 -2.477419 8 18 20
-1.460317 -0.396825 -2.438095 7 19 20
-1.407692 -0.384615 -2.363077 8 21 22
-1.309353 -0.359712 -2.210072 9 24 25
-1.292857 -0.357143 -2.194286 8 24 25
-1.276596 -0.354610 -2.178724 11 28 32
-1.260563 -0.352113 -2.163380 12 31 36
-1.219178 -0.342466 -2.104110 13 33 37
-1.212329 -0.342466 -2.104110 12 32 38
-1.205480 -0.342466 -2.104110 13 34 40
-1.198630 -0.342466 -2.104110 15 36 41
-1.191781 -0.342466 -2.104110 16 36 39
-1.184932 -0.342466 -2.104110 11 27 31
-1.178082 -0.342466 -2.104110 11 30 36
-1.171233 -0.342466 -2.104110 18 37 46
-1.164384 -0.342466 -2.104110 14 34 40
-1.157534 -0.342466 -2.104110 10 23 22
-1.150685 -0.342466 -2.104110 5 12 10
-1.143836 -0.342466 -2.104110 5 12 9
-1.136986 -0.342466 -2.104110 6 15 11
-1.130137 -0.342466 -2.104110 6 13 10
-1.123288 -0.342466 -2.104110 13 19 17
